      0.00456647     -0.00568910     -0.03111385     -0.64358691      0.74901980     -0.15736970
      0.00501951     -0.00540211     -0.03161676     -0.64785566      0.74632987     -0.15256068
      0.00096100      0.00144214     -0.02527987     -0.13972596     -0.18147116     -0.97341917
      0.00182934      0.00146790     -0.02544448     -0.22162882     -0.19898934     -0.95461192
      0.00471802      0.00446620     -0.03612601      0.60612438      0.61119223     -0.50897671
      0.00419190      0.00465462     -0.03651622      0.59441123      0.61516025     -0.51793162
      0.00312208      0.00058633     -0.02577787     -0.39094295     -0.07900504     -0.91701789
      0.00240666      0.00054577     -0.02548752     -0.35218385     -0.07247571     -0.93312047
      0.00250096     -0.00698989     -0.03275502      0.30664728     -0.94930734     -0.06915936
      0.00203343     -0.00709923     -0.03330164      0.30364416     -0.94999506     -0.07286703
      0.00102031     -0.00735034     -0.03289957      0.11215916     -0.99009518     -0.08445036
      0.00052058     -0.00735403     -0.03343782      0.09986147     -0.99009686     -0.09867059
      0.00320036      0.00668208     -0.03313003      0.40062462      0.90985927     -0.10796305
      0.00255945      0.00690772     -0.03346641      0.37040875      0.91980010     -0.12948027
      0.00279366      0.00345186     -0.02654506     -0.40904594     -0.46841471     -0.78311498
      0.00345179      0.00348482     -0.02692006     -0.42974084     -0.47046117     -0.77070688
      0.00198247      0.00242766     -0.02576150     -0.29115938     -0.32765030     -0.89881672
      0.00272722      0.00249662     -0.02605119     -0.34029904     -0.33463430     -0.87875847
      0.00379488      0.00254053     -0.03834345      0.51012016      0.29386451     -0.80834465
      0.00370771      0.00177301     -0.03866551      0.50928863      0.27345176     -0.81599585
      0.00506959      0.00076814     -0.03786825      0.64461381      0.11208930     -0.75624667
      0.00438436      0.00087379     -0.03840506      0.60826933      0.11569941     -0.78525287
      0.00566781     -0.00357177     -0.03572136      0.77362215     -0.45150556     -0.44458014
      0.00586522     -0.00297606     -0.03597934      0.77526194     -0.44697580     -0.44629761
      0.00500928     -0.00419980     -0.03604219      0.65265721     -0.56313803     -0.50686697
      0.00462120     -0.00414284     -0.03659989      0.64751413     -0.56309350     -0.51346973
      0.00575157      0.00427369     -0.03057327     -0.75612375     -0.61200404     -0.23179285
      0.00544235      0.00481660     -0.03100085     -0.75541810     -0.61324923     -0.23080051
      0.00469976     -0.00575423     -0.03262230      0.65562334     -0.75378462     -0.04434847
      0.00504227     -0.00540424     -0.03321646      0.67227451     -0.73728487     -0.06676824
      0.00343679     -0.00658393     -0.03268143      0.49183787     -0.86908919     -0.05272096
      0.00389216     -0.00629624     -0.03315112      0.49418290     -0.86760452     -0.05518752
      0.00141214      0.00322528     -0.02594134     -0.17407885     -0.42581548     -0.88790638
      0.00070165      0.00305401     -0.02574623     -0.11243268     -0.41913456     -0.90093569
      0.00686481     -0.00128003     -0.03504886      0.92073146     -0.13711344     -0.36531286
      0.00684250     -0.00060441     -0.03533382      0.92041428     -0.11505618     -0.37363033
      0.00533479     -0.00179134     -0.03739813      0.70134367     -0.23878856     -0.67163762
      0.00485827     -0.00172003     -0.03788431      0.65692547     -0.22953614     -0.71816578
      0.00346999     -0.00509319     -0.03665006      0.49223274     -0.65464568     -0.57371244
      0.00387434     -0.00457056     -0.03689707      0.49461640     -0.65166534     -0.57505382
      0.00219954     -0.00045402     -0.02541334     -0.26605766      0.06071840     -0.96204293
      0.00153009     -0.00052385     -0.02523662     -0.25422497      0.06292314     -0.96509603
      0.00248428      0.00600017     -0.02889366     -0.36166129     -0.79938620     -0.47977372
      0.00314909      0.00591872     -0.02929135     -0.39519659     -0.79766858     -0.45557052
      0.00533584      0.00174317     -0.03735758      0.74144177      0.22761672     -0.63123271
      0.00585031      0.00152717     -0.03681634      0.75858010      0.22142752     -0.61280183
      0.00501837      0.00280591     -0.03719902      0.64626783      0.38463443     -0.65908592
      0.00442817      0.00301170     -0.03764519      0.62977692      0.39033678     -0.67157891
      0.00570417     -0.00026979     -0.03727787      0.75059567     -0.03248698     -0.65996268
      0.00525224     -0.00022762     -0.03777657      0.72666510     -0.02426687     -0.68656314
      0.00677691     -0.00245687     -0.03428863      0.90353407     -0.37154842     -0.21348995
      0.00662204     -0.00305688     -0.03389370      0.90267589     -0.37451386     -0.21193303
      0.00718884     -0.00118817     -0.03398370      0.96390615     -0.20172571     -0.17375751
      0.00713949     -0.00176024     -0.03358101      0.96328032     -0.20691202     -0.17110942
      0.00094494     -0.00134524     -0.03974628      0.13194217     -0.16272593     -0.97780956
      0.00053302     -0.00062124     -0.03988980      0.08979073     -0.09876572     -0.99105144
      0.00567090     -0.00254908     -0.03662084      0.73572193     -0.34909596     -0.58038372
      0.00530768     -0.00255900     -0.03706661      0.72604864     -0.34820917     -0.59296184
      0.00456292     -0.00345462     -0.03726505      0.62258651     -0.44118154     -0.64633187
      0.00478519     -0.00292579     -0.03741112      0.62362890     -0.43932059     -0.64659448
      0.00348193     -0.00626418     -0.03448660      0.48853468     -0.83849387     -0.24137501
      0.00390433     -0.00615629     -0.03400352      0.48992380     -0.83827943     -0.23929537
      0.00391956     -0.00568493     -0.03524761      0.50110808     -0.76486641     -0.40480867
      0.00348943     -0.00565978     -0.03581794      0.49461426     -0.76450632     -0.41338460
      0.00208008      0.00624610     -0.03594997      0.29365742      0.82579698     -0.48148173
      0.00246037      0.00583078     -0.03641154      0.30809752      0.81005760     -0.49888135
      0.00336807      0.00560474     -0.03605568      0.46482627      0.73342342     -0.49601072
      0.00356344      0.00519167     -0.03648174      0.46605882      0.73133320     -0.49793667
      0.00339854      0.00656015     -0.03168619     -0.43039919     -0.89875332     -0.08366009
      0.00291861      0.00682803     -0.03211129     -0.42758356     -0.90032253     -0.08118892
      0.00420851      0.00611550     -0.03230953     -0.59985557     -0.79813037     -0.05622460
      0.00466872      0.00573831     -0.03187578     -0.60083550     -0.79732471     -0.05718404
      0.00250306      0.00492708     -0.02754858     -0.31502003     -0.70394197     -0.63657528
      0.00214807      0.00550509     -0.02802979     -0.30394968     -0.72081227     -0.62293199
      0.00622905      0.00184979     -0.03611519      0.83294360      0.30461173     -0.46197040
      0.00616508      0.00252143     -0.03576963      0.83322702      0.31940278     -0.45134754
      0.00565907      0.00341110     -0.03590613      0.74630188      0.45856753     -0.48244100
      0.00517352      0.00358972     -0.03645716      0.72019174      0.46993147     -0.51038051
      0.00611598     -0.00118552     -0.03660133      0.80927798     -0.15503605     -0.56659772
      0.00574376     -0.00110019     -0.03712435      0.78009406     -0.14073759     -0.60962791
      0.00709288      0.00115679     -0.03442263      0.94921227      0.13979402     -0.28187531
      0.00697436      0.00066765     -0.03499547      0.94227052      0.10594745     -0.31764981
      0.00732266     -0.00047425     -0.03379273      0.98943888     -0.05109978     -0.13564478
      0.00740798     -0.00029854     -0.03323155      0.98977198     -0.04936496     -0.13384518
      0.00113459      0.00033646     -0.03981817      0.13437133      0.08061608     -0.98764639
      0.00060157      0.00095770     -0.03983119      0.12046983      0.09845074     -0.98782310
      0.00193928     -0.00154130     -0.03948323      0.28439701     -0.18874445     -0.93994355
      0.00259080     -0.00108360     -0.03937256      0.29613060     -0.17819181     -0.93837857
      0.00337307     -0.00280744     -0.03850836      0.46673760     -0.35536914     -0.80985726
      0.00382525     -0.00220840     -0.03848653      0.49708189     -0.31375006     -0.80899351
      0.00340984     -0.00404328     -0.03772574      0.47827489     -0.51506100     -0.71131238
      0.00380069     -0.00347780     -0.03786551      0.48675039     -0.50327279     -0.71399619
      0.00205173     -0.00558013     -0.03695040      0.30663363     -0.72375760     -0.61818343
      0.00253086     -0.00510882     -0.03726052      0.31097821     -0.71942397     -0.62106497
      0.00206743     -0.00677552     -0.03473761      0.30925753     -0.91231699     -0.26839801
      0.00255478     -0.00676500     -0.03420864      0.31081724     -0.91234462     -0.26649567
      0.00256445     -0.00624955     -0.03558590      0.31414047     -0.83585199     -0.45018576
      0.00206588     -0.00615427     -0.03610789      0.31184915     -0.83534094     -0.45272025
      0.00193175      0.00546738     -0.03716953      0.26831812      0.72181638     -0.63795494
      0.00233886      0.00500213     -0.03750113      0.29573407      0.69169697     -0.65886013
      0.00371599      0.00603389     -0.03473498      0.51505375      0.79326697     -0.32472628
      0.00399116      0.00563779     -0.03525603      0.51884744      0.78758062     -0.33243662
      0.00394043      0.00616665     -0.03377275      0.56695240      0.81066345     -0.14625231
      0.00446866      0.00586794     -0.03337735      0.56793370      0.81012324     -0.14543606
      0.00289966      0.00644787     -0.03019906     -0.42332714     -0.86199191     -0.27886212
      0.00339209      0.00636302     -0.03069763     -0.43052549     -0.86072379     -0.27166590
      0.00420925      0.00570367     -0.03029649     -0.60008560     -0.75639275     -0.26032149
      0.00467590      0.00552361     -0.03085130     -0.60104575     -0.75603787     -0.25913459
      0.00389974      0.00517459     -0.02888085     -0.56010348     -0.68882609     -0.46022028
      0.00446747      0.00504438     -0.02938742     -0.56918178     -0.68716542     -0.45148177
      0.00340794      0.00440181     -0.02759528     -0.49960892     -0.59334115     -0.63113961
      0.00402376      0.00437009     -0.02805589     -0.50342487     -0.59323129     -0.62820382
      0.00603599      0.00050997     -0.03682830      0.82371158      0.06536637     -0.56322861
      0.00644267      0.00033968     -0.03620867      0.85737315      0.04904037     -0.51235371
      0.00645964     -0.00188226     -0.03567828      0.87195707     -0.27410322     -0.40565785
      0.00642109     -0.00248703     -0.03532074      0.86754237     -0.30717103     -0.39117284
      0.00695492      0.00250507     -0.03313367      0.95027690      0.30583323     -0.05865028
      0.00716986      0.00190708     -0.03265882      0.95491440      0.29270504     -0.04962109
      0.00630487      0.00389921     -0.03285204      0.87375139      0.48612456     -0.01553756
      0.00661318      0.00335961     -0.03241519      0.87345420      0.48664637     -0.01590828
      0.00502895      0.00467332     -0.03538508      0.65851291      0.66527665     -0.35180638
      0.00483338      0.00509388     -0.03495704      0.65874619      0.66457626     -0.35269229
      0.00278661     -0.00007851     -0.03935827      0.34959536      0.03889500     -0.93609308
      0.00232473      0.00065789     -0.03949224      0.34124819      0.05235481     -0.93851406
      0.00246692     -0.00309025     -0.03878076      0.28465644     -0.38191197     -0.87926899
      0.00189259     -0.00267189     -0.03914550      0.28078403     -0.37890739     -0.88181036
      0.00199958     -0.00449640     -0.03806268      0.29488594     -0.57511968     -0.76307250
      0.00247421     -0.00395348     -0.03828088      0.30468876     -0.56386343     -0.76760849
      0.00503584     -0.00500454     -0.03468592      0.67362032     -0.66636748     -0.31967179
      0.00470853     -0.00498243     -0.03537907      0.65390901     -0.66931123     -0.35273997
      0.00104828     -0.00635587     -0.03619802      0.10978750     -0.87453325     -0.47237516
      0.00052578     -0.00664674     -0.03577611      0.10550193     -0.87714868     -0.46848644
      0.00104636     -0.00711344     -0.03436886      0.10959415     -0.95294049     -0.28265446
      0.00052578     -0.00701990     -0.03487508      0.10387039     -0.95170583     -0.28890647
      0.00105347      0.00629481     -0.03630183      0.11855863      0.86592563     -0.48591837
      0.00054916      0.00661822     -0.03582771      0.10258350      0.87741797     -0.46863027
      0.00050431      0.00583169     -0.03708695      0.08899528      0.77060667     -0.63106671
      0.00100231      0.00541958     -0.03749307      0.11659494      0.74556152     -0.65615824
      0.00229615      0.00677455     -0.03444719      0.32181349      0.90365715     -0.28255943
      0.00271262      0.00641616     -0.03507305      0.33948993      0.88824106     -0.30947440
      0.00093654      0.00731297     -0.03150959     -0.09321750     -0.99078098     -0.09830333
      0.00047818      0.00740436     -0.03199393     -0.09364346     -0.99069766     -0.09873723
      0.00212591      0.00707433     -0.03155241     -0.26349760     -0.95903555     -0.10401844
      0.00174899      0.00722561     -0.03199905     -0.26151724     -0.95973960     -0.10251160
      0.00104354      0.00581080     -0.02801398     -0.12452135     -0.77467188     -0.61998218
      0.00046374      0.00553196     -0.02755792     -0.11133972     -0.76886618     -0.62964138
      0.00104688      0.00639554     -0.02886622     -0.11133640     -0.86923102     -0.48170700
      0.00046708      0.00665801     -0.02922149     -0.09528933     -0.87805767     -0.46897193
      0.00689833      0.00210937     -0.03425196      0.90755770      0.32324666     -0.26804966
      0.00654121      0.00267464     -0.03473484      0.89643555      0.34059569     -0.28354518
      0.00733670      0.00058107     -0.03354172      0.99002581      0.10321446     -0.09589406
      0.00735709      0.00093566     -0.03289621      0.99021279      0.11044337     -0.08532813
      0.00089825     -0.00294467     -0.03926622      0.12749482     -0.41009566     -0.90308727
      0.00048633     -0.00360930     -0.03898799      0.07961564     -0.46962019     -0.87927142
      0.00099795     -0.00433813     -0.03845246      0.11840657     -0.60475041     -0.78756386
      0.00051162     -0.00484166     -0.03811957      0.09301525     -0.63083396     -0.77032245
      0.00103413     -0.00547124     -0.03741967      0.11499539     -0.75813929     -0.64187294
      0.00052250     -0.00586422     -0.03703475      0.10085137     -0.76973200     -0.63035042
      0.00573760     -0.00433290     -0.03429550      0.78766981     -0.56069338     -0.25534135
      0.00606881     -0.00368276     -0.03466782      0.79762791     -0.54136654     -0.26591726
      0.00049800      0.00482253     -0.03814077      0.08704218      0.63117605     -0.77074020
      0.00103624      0.00432566     -0.03845680      0.12172421      0.59395929     -0.79523303
      0.00108833      0.00729230     -0.03338005      0.11690352      0.98663760     -0.11348926
      0.00047818      0.00740437     -0.03296913      0.10119559      0.98996273     -0.09865722
      0.00115930      0.00707022     -0.03438116      0.13368141      0.95189122     -0.27573971
      0.00054916      0.00699137     -0.03492669      0.12149310      0.94979344     -0.28832593
      0.00092544      0.00698836     -0.03012578     -0.09261795     -0.95232939     -0.29067274
      0.00045835      0.00716909     -0.03057162     -0.09104214     -0.95290975     -0.28926516
      0.00172539      0.00686030     -0.03016041     -0.25883107     -0.92475923     -0.27897462
      0.00211341      0.00689130     -0.03062875     -0.26255404     -0.92460592     -0.27598782
      0.00611488      0.00399568     -0.03386350      0.82931533      0.51510794     -0.21656382
      0.00615593      0.00362188     -0.03453650      0.83317574      0.49677253     -0.24297168
      0.00577249      0.00464796     -0.03212178     -0.75392788     -0.65649965     -0.02451458
      0.00537875      0.00511582     -0.03255370     -0.75350270     -0.65700452     -0.02405682
      0.00542377      0.00480793     -0.03413702      0.71775758      0.67213002     -0.18183865
      0.00522001      0.00517933     -0.03355748      0.71624965      0.67491310     -0.17742252
      0.00053824      0.00361596     -0.03897113      0.09354567      0.46904984     -0.87820354
      0.00082787      0.00303743     -0.03923930      0.11100266      0.44620269     -0.88802115
     -0.00536970     -0.00076597     -0.03760140     -0.70129426     -0.12681285     -0.70150186
     -0.00497120     -0.00112801     -0.03792985     -0.69474022     -0.13253110     -0.70694521
     -0.00704344     -0.00240794     -0.03263609     -0.95212922     -0.30569505      0.00069467
     -0.00720528     -0.00186639     -0.03225606     -0.96057338     -0.27749848      0.01712802
     -0.00612461     -0.00135719     -0.03647708     -0.81388547     -0.15249205     -0.56065731
     -0.00593257     -0.00083050     -0.03690044     -0.81446878     -0.15427667     -0.55932041
     -0.00739260     -0.00053060     -0.03212631      0.99845489      0.03286982     -0.04480421
     -0.00741736      0.00019870     -0.03247956     -0.99962805     -0.00063067      0.02726473
     -0.00496702     -0.00316738     -0.02793949      0.64653003      0.42493219     -0.63358626
     -0.00448297     -0.00315841     -0.02746051      0.62074992      0.42075139     -0.66154199
     -0.00650290     -0.00361824     -0.03245486      0.88863891      0.45743874     -0.03272120
     -0.00674028     -0.00311144     -0.03204577      0.89605564      0.44177889     -0.04376883
     -0.00389540     -0.00113733     -0.03872282     -0.50301118     -0.15357863     -0.85052534
     -0.00331634     -0.00073892     -0.03911148     -0.46412414     -0.12225631     -0.87729253
     -0.00446334     -0.00228351     -0.02701182      0.57929914      0.30147612     -0.75731411
     -0.00380799     -0.00233899     -0.02656286      0.53291079      0.29988690     -0.79124834
     -0.00507498     -0.00476336     -0.03501964     -0.70469395     -0.61286164     -0.35750112
     -0.00546419     -0.00409897     -0.03537437     -0.71277232     -0.60026073     -0.36282597
     -0.00245177     -0.00125863     -0.03939977     -0.31383697     -0.15296609     -0.93707403
     -0.00192622     -0.00074792     -0.03964429     -0.28645880     -0.12726206     -0.94960293
     -0.00539436     -0.00415516     -0.02951044      0.73552816      0.52463866     -0.42866374
     -0.00544615     -0.00366516     -0.02901238      0.73792267      0.51312383     -0.43837663
     -0.00728551      0.00127334     -0.03232953      0.97316218     -0.21331184     -0.08633321
     -0.00709913      0.00178718     -0.03157893      0.97063843     -0.22016037     -0.09690435
     -0.00494343     -0.00544571     -0.03349752     -0.68205533     -0.71366648     -0.15962672
     -0.00539176     -0.00491146     -0.03388310     -0.70133649     -0.69025401     -0.17797901
     -0.00689042     -0.00092850     -0.03512566     -0.90964093     -0.15545183     -0.38521176
     -0.00661516     -0.00140819     -0.03557537     -0.90698797     -0.16037643     -0.38942551
     -0.00309601      0.00166267     -0.03906999     -0.42862086      0.21867483     -0.87662163
     -0.00355738      0.00209657     -0.03870382     -0.47624534      0.26738381     -0.83767313
     -0.00322126      0.00299791     -0.03850523     -0.42151267      0.41958056     -0.80391493
     -0.00262469      0.00317926     -0.03871035     -0.38752808      0.42722573     -0.81688443
     -0.00211833      0.00263367     -0.03914977     -0.28277243      0.32683976     -0.90178463
     -0.00225353      0.00201842     -0.03931081     -0.29097435      0.28040155     -0.91471793
     -0.00046780     -0.00458390     -0.03834329     -0.08101160     -0.63149825     -0.77113363
     -0.00086435     -0.00510296     -0.03783022     -0.13353581     -0.67378225     -0.72676383
     -0.00622296     -0.00387661     -0.03381175     -0.85261294     -0.49723716     -0.16064366
     -0.00654885     -0.00341315     -0.03344804     -0.86844559     -0.47392646     -0.14558837
     -0.00098493     -0.00115722     -0.03978161     -0.11614208     -0.14072424     -0.98321295
     -0.00048052     -0.00058181     -0.03990236     -0.08185520     -0.09883351     -0.99173165
     -0.00543392      0.00351054     -0.02885618      0.73915322     -0.48513470     -0.46722248
     -0.00535122      0.00409442     -0.02935893      0.73075759     -0.51484660     -0.44824807
     -0.00673651      0.00293355     -0.03153183      0.91095722     -0.39885378     -0.10522645
     -0.00655298      0.00347068     -0.03222547      0.89440173     -0.44274929     -0.06339253
     -0.00186050     -0.00591201     -0.03653397     -0.28099958     -0.80917058     -0.51602539
     -0.00239616     -0.00617169     -0.03579221     -0.31595883     -0.81699329     -0.48238158
     -0.00347473     -0.00576300     -0.03550111     -0.49273045     -0.75843997     -0.42659761
     -0.00411013     -0.00508492     -0.03593094     -0.51722997     -0.73260505     -0.44245111
     -0.00565241     -0.00282321     -0.03636643     -0.75551192     -0.36166312     -0.54626141
     -0.00554364     -0.00223228     -0.03690139     -0.75483152     -0.35295305     -0.55285940
     -0.00086081     -0.00622356     -0.03646477     -0.13221599     -0.84454588     -0.51890384
     -0.00046426     -0.00662495     -0.03585603     -0.08020129     -0.87923000     -0.46959808
     -0.00349896     -0.00626951     -0.03421606     -0.50091788     -0.84030393     -0.20729346
     -0.00408295     -0.00608152     -0.03355360     -0.50554846     -0.83888005     -0.20174493
     -0.00379974     -0.00360540     -0.02719933      0.49055981      0.53278049     -0.68956219
     -0.00355579     -0.00415215     -0.02745405      0.48631014      0.54120453     -0.68600300
     -0.00262527     -0.00456831     -0.02726747      0.32601427      0.60731138     -0.72449126
     -0.00207109     -0.00431681     -0.02681659      0.31294299      0.59970859     -0.73648916
     -0.00721654     -0.00046820     -0.03093478      0.96842836      0.10098122     -0.22792392
     -0.00705179     -0.00124430     -0.03060176      0.96602262      0.11363492     -0.23213661
     -0.00419272      0.00195391     -0.03834811     -0.55783176      0.25357797     -0.79026701
     -0.00452168      0.00141132     -0.03826899     -0.59119393      0.20429996     -0.78022514
     -0.00512778      0.00133782     -0.03775340     -0.70149664      0.19878332     -0.68438853
     -0.00530505      0.00175173     -0.03744381     -0.70783131      0.21252403     -0.67365301
     -0.00496316      0.00254275     -0.03745306     -0.64827123      0.35510464     -0.67353182
     -0.00445693      0.00267144     -0.03784177     -0.60366735      0.36868711     -0.70686317
     -0.00417677     -0.00427331     -0.03682928     -0.50824113     -0.55456852     -0.65889658
     -0.00355558     -0.00400261     -0.03754179     -0.51193288     -0.55659232     -0.65431622
     -0.00241391     -0.00441280     -0.03792086     -0.32040918     -0.62693426     -0.71013477
     -0.00186404     -0.00510190     -0.03752028     -0.27876529     -0.66491018     -0.69295336
     -0.00413589     -0.00209895     -0.03825006     -0.51485997     -0.35783598     -0.77902030
     -0.00356196     -0.00284083     -0.03829038     -0.51631958     -0.35571069     -0.77902760
     -0.00095189     -0.00691901     -0.03508201     -0.10639805     -0.93951646     -0.32555840
     -0.00048762     -0.00713280     -0.03455865     -0.07930327     -0.95386809     -0.28956286
     -0.00676811     -0.00267968     -0.03403004     -0.92251577     -0.33702473     -0.18809302
     -0.00702532     -0.00218128     -0.03362718     -0.92989574     -0.32209879     -0.17761272
     -0.00435393     -0.00446573     -0.02840680      0.55549086      0.60966343     -0.56545593
     -0.00383193     -0.00463850     -0.02810206      0.52856268      0.61193398     -0.58835219
     -0.00106403     -0.00484722     -0.02697287      0.11058237      0.63372648     -0.76561236
     -0.00052313     -0.00451095     -0.02661974      0.10576293      0.63002721     -0.76933732
     -0.00103052     -0.00370959     -0.02613933      0.10448454      0.47681972     -0.87276912
     -0.00050739     -0.00331148     -0.02586449      0.09617465      0.46893182     -0.87798257
     -0.00597662      0.00258000     -0.02899037      0.82967362     -0.33514794     -0.44644993
     -0.00645328      0.00241397     -0.02981501      0.86103501     -0.31624791     -0.39825366
     -0.00688626      0.00136954     -0.03026985      0.93541526     -0.15030572     -0.32001013
     -0.00689841      0.00040775     -0.02990746      0.93575436     -0.11549197     -0.33320471
     -0.00638184     -0.00234641     -0.02957232      0.84425607      0.32941778     -0.42274770
     -0.00589044     -0.00276928     -0.02895728      0.82373445      0.34835152     -0.44733967
     -0.00435165      0.00261922     -0.02706933      0.61729481     -0.35152186     -0.70383201
     -0.00489099      0.00271009     -0.02761207      0.64807246     -0.35054570     -0.67610636
     -0.00628187      0.00009311     -0.03647462     -0.82991201      0.04160004     -0.55634117
     -0.00600090      0.00057192     -0.03685840     -0.83023545      0.04103165     -0.55590063
     -0.00613046      0.00151586     -0.03642867     -0.80615074      0.22764892     -0.54616569
     -0.00576173      0.00191761     -0.03680262     -0.80331534      0.23081559     -0.54900695
     -0.00186749      0.00011163     -0.03970783     -0.28294711      0.04672010     -0.95799696
     -0.00222322      0.00065239     -0.03956944     -0.29265734      0.06132849     -0.95424866
     -0.00174282      0.00149654     -0.03958945     -0.23080082      0.20723718     -0.95067541
     -0.00090656      0.00153760     -0.03972829     -0.11693046      0.21509585     -0.96956745
     -0.00658855     -0.00233938     -0.03502085     -0.86504191     -0.34472458     -0.36450988
     -0.00620676     -0.00287932     -0.03538761     -0.85190066     -0.36271738     -0.37775834
     -0.00048995     -0.00341156     -0.03909402     -0.07828772     -0.46966974     -0.87936418
     -0.00095775     -0.00388262     -0.03878221     -0.10652606     -0.50379323     -0.85723076
     -0.00203105     -0.00708826     -0.03337434     -0.29317238     -0.94517441     -0.14385860
     -0.00244375     -0.00681291     -0.03411080     -0.33264239     -0.92226725     -0.19690646
     -0.00307020      0.00465748     -0.03741420     -0.37540764      0.63313712     -0.67690952
     -0.00238606      0.00482185     -0.03762777     -0.35520339      0.63584100     -0.68522753
     -0.00260300     -0.00522421     -0.02789098      0.32236568      0.71489424     -0.62048899
     -0.00204610     -0.00564632     -0.02810950      0.29827091      0.73852004     -0.60466736
     -0.00232442     -0.00226238     -0.02580900      0.30319964      0.30608267     -0.90243192
     -0.00172502     -0.00205954     -0.02554515      0.28274881      0.29675790     -0.91213368
     -0.00094294     -0.00256584     -0.02556706      0.10521431      0.34439038     -0.93291222
     -0.00043554     -0.00208704     -0.02536384      0.06262247      0.28990137     -0.95500556
     -0.00614007     -0.00063651     -0.02847022      0.83474701      0.02406452     -0.55010756
     -0.00623061      0.00033672     -0.02857941      0.83690702      0.00888026     -0.54727304
     -0.00553984      0.00105128     -0.02770932      0.76131622     -0.16766961     -0.62632621
     -0.00556016      0.00196066     -0.02802919      0.75750233     -0.23202864     -0.61020728
     -0.00552756     -0.00126810     -0.02776433      0.72893239      0.14857786     -0.66826805
     -0.00493575     -0.00116454     -0.02711083      0.71201089      0.14814248     -0.68636309
     -0.00585864      0.00400511     -0.03025952      0.77301082     -0.57112358     -0.27617410
     -0.00562441      0.00451346     -0.03068848      0.76598301     -0.58768456     -0.26057032
     -0.00600023      0.00430069     -0.03170400      0.79564822     -0.60048149     -0.07978658
     -0.00568036      0.00477647     -0.03225793      0.78163060     -0.62099559     -0.05846427
     -0.00566404      0.00285261     -0.03638510     -0.73740569      0.40316737     -0.54193074
     -0.00518320      0.00315098     -0.03680478     -0.72396226      0.41203990     -0.55326465
     -0.00377666      0.00395478     -0.03753293     -0.51163406      0.49393713     -0.70303392
     -0.00383244      0.00331950     -0.03792801     -0.51215790      0.47820821     -0.71345020
     -0.00361363      0.00027609     -0.03899832     -0.45917086      0.06031044     -0.88629835
     -0.00308091      0.00077833     -0.03921992     -0.42895829      0.08844421     -0.89898409
     -0.00244243     -0.00289001     -0.03887887     -0.33324032     -0.37213828     -0.86629325
     -0.00200043     -0.00224681     -0.03929237     -0.29092740     -0.32480543     -0.89992371
     -0.00050441     -0.00201945     -0.03963975     -0.08598922     -0.28940180     -0.95333753
     -0.00099436     -0.00259833     -0.03939503     -0.12086391     -0.33226661     -0.93540944
     -0.00051951     -0.00739414     -0.03307455     -0.09269058     -0.99078706     -0.09873937
     -0.00100713     -0.00726645     -0.03368916     -0.12329052     -0.98264508     -0.13859325
     -0.00728604     -0.00095786     -0.03369500     -0.96669843     -0.15684149     -0.20222485
     -0.00712102     -0.00136129     -0.03416828     -0.96631630     -0.15797990     -0.20316289
     -0.00475761     -0.00486642     -0.02949141      0.61347105      0.66518442     -0.42565592
     -0.00428729     -0.00503186     -0.02907643      0.60908183      0.66677481     -0.42945393
     -0.00367277     -0.00549183     -0.02905452      0.47289685      0.77056446     -0.42731602
     -0.00339216     -0.00587538     -0.02943699      0.47200023      0.77162175     -0.42639847
     -0.00203758     -0.00355832     -0.02629354      0.30058904      0.45101458     -0.84037615
     -0.00254940     -0.00304960     -0.02621595      0.31664806      0.42844664     -0.84626679
     -0.00361862     -0.00139194     -0.02617508      0.45285885      0.19508471     -0.86997748
     -0.00294891     -0.00140824     -0.02583132      0.45019828      0.19495219     -0.87138691
     -0.00649137     -0.00329337     -0.03101306      0.88474368      0.40535083     -0.23004202
     -0.00667022     -0.00266027     -0.03062280      0.88919533      0.38854505     -0.24158725
     -0.00373642      0.00171627     -0.02630001      0.52712024     -0.22964984     -0.81817187
     -0.00430897      0.00170542     -0.02667386      0.54428950     -0.23233063     -0.80608401
     -0.00695085      0.00004179     -0.03511787     -0.92302086      0.03959571     -0.38270703
     -0.00673729      0.00055347     -0.03557768     -0.92231114      0.04139884     -0.38422428
     -0.00679427      0.00156139     -0.03505119     -0.89630589      0.24198222     -0.37159166
     -0.00646841      0.00204496     -0.03551839     -0.89458406      0.24463772     -0.37399431
     -0.00429892      0.00069225     -0.03855152     -0.58293777      0.07812704     -0.80875195
     -0.00462312      0.00020447     -0.03835311     -0.60629659      0.05410923     -0.79339563
     -0.00545589      0.00014423     -0.03756952     -0.71703583      0.04465357     -0.69560454
     -0.00516361      0.00059676     -0.03783982     -0.71462006      0.04802589     -0.69786222
     -0.00507689     -0.00518015     -0.03088176      0.65462042      0.71371277     -0.24917101
     -0.00463823     -0.00541042     -0.03039042      0.65391189      0.71410273     -0.24991306
     -0.00391524     -0.00609415     -0.03085537      0.49817263      0.83016776     -0.25029088
     -0.00343790     -0.00622412     -0.03034142      0.49562576      0.83090696     -0.25288086
     -0.00250779     -0.00602868     -0.02894106      0.30596907      0.83706466     -0.45354789
     -0.00204302     -0.00639366     -0.02930509      0.30283065      0.83969758     -0.45077886
     -0.00052041     -0.00587417     -0.02797876      0.10288269      0.76957107     -0.63021863
     -0.00106131     -0.00552082     -0.02764227      0.11066955      0.76344696     -0.63631831
     -0.00571483     -0.00448137     -0.03090757      0.78287705      0.57082400     -0.24751462
     -0.00591293     -0.00400039     -0.03043527      0.78511390      0.56581972     -0.25188136
     -0.00466775     -0.00010271     -0.02673656      0.61514503      0.03000882     -0.78784267
     -0.00400597     -0.00027464     -0.02624979      0.57557964      0.03372941     -0.81704982
     -0.00295216      0.00063120     -0.02570502      0.43864533     -0.09256226     -0.89388059
     -0.00359366      0.00072584     -0.02603611      0.45207902     -0.09413778     -0.88699641
     -0.00670154      0.00305931     -0.03335101     -0.88944069      0.43414899     -0.14286326
     -0.00635835      0.00354744     -0.03392172     -0.87676581      0.45292892     -0.16166976
     -0.00588992      0.00443459     -0.03335010     -0.77423862      0.61671157     -0.14220196
     -0.00545087      0.00484422     -0.03388215     -0.75760534      0.63264669     -0.16059989
     -0.00629964      0.00303655     -0.03498991     -0.82651063      0.43228228     -0.36057205
     -0.00586401      0.00344245     -0.03548266     -0.81607950      0.44252654     -0.37173177
     -0.00485831      0.00407147     -0.03637028     -0.61949441      0.56491982     -0.54506172
     -0.00428837      0.00431559     -0.03676143     -0.61528848      0.56670630     -0.54796356
     -0.00226810      0.00706432     -0.03305487     -0.28289754      0.95440124     -0.09532711
     -0.00181939      0.00714959     -0.03351058     -0.27686362      0.95570481     -0.09987416
     -0.00049329      0.00740135     -0.03299950     -0.09811374      0.99026987     -0.09868783
     -0.00098314      0.00730250     -0.03348776     -0.10137846      0.98959741     -0.10207532
     -0.00257395     -0.00695795     -0.03236363      0.32553497      0.94430925     -0.04803153
     -0.00207643     -0.00708732     -0.03174783      0.30854845      0.94878486     -0.06786125
     -0.00104591     -0.00734532     -0.03214393      0.12140328      0.98988512     -0.07340769
     -0.00052640     -0.00735399     -0.03156937      0.10017206      0.99006513     -0.09867419
     -0.00255951     -0.00675185     -0.03076732      0.31497426      0.91148172     -0.26456055
     -0.00204901     -0.00676809     -0.03022691      0.30930669      0.91163448     -0.27065096
     -0.00052002     -0.00664558     -0.02921842      0.10373223      0.87731289     -0.46857414
     -0.00104043     -0.00636465     -0.02881002      0.10582999      0.87604109     -0.47048062
     -0.00582241     -0.00464005     -0.03236495      0.79863448      0.59906666     -0.05746390
     -0.00605590     -0.00428116     -0.03189445      0.80054924      0.59625372     -0.06002017
     -0.00719832      0.00148834     -0.03344062     -0.95802745      0.24052409     -0.15598581
     -0.00696870      0.00206485     -0.03395199     -0.95690960      0.24338317     -0.15839399
     -0.00548367      0.00436297     -0.03494652     -0.71168245      0.60635702     -0.35473828
     -0.00495881      0.00469362     -0.03541446     -0.69913080      0.61450528     -0.36551248
     -0.00108430      0.00553122     -0.02765775      0.11751608     -0.75229396     -0.64826211
     -0.00048908      0.00587282     -0.02796511      0.09408635     -0.77024459     -0.63077019
     -0.00144832      0.00284551     -0.03925039     -0.20423443      0.38855184     -0.89850752
     -0.00137891      0.00338487     -0.03901191     -0.19180096      0.44485610     -0.87482309
     -0.00067785      0.00371171     -0.03893864     -0.06545780      0.48833816     -0.87019602
     -0.00028638      0.00336294     -0.03915211     -0.03540415      0.47082033     -0.88151844
     -0.00046089      0.00220989     -0.03959458     -0.06803928      0.28979836     -0.95466621
     -0.00074727      0.00274015     -0.03940795     -0.07883786      0.31475929     -0.94589174
     -0.00402005     -0.00622988     -0.03245412      0.51148601      0.85846632     -0.03765141
     -0.00353437     -0.00649250     -0.03189707      0.50821893      0.86023722     -0.04129711
     -0.00104642     -0.00711223     -0.03063287      0.11214781      0.95333863     -0.28030041
     -0.00052002     -0.00701873     -0.03011945      0.10411555      0.95168319     -0.28889283
     -0.00203682     -0.00044585     -0.02535293      0.30978414      0.05571107     -0.94917336
     -0.00269476     -0.00038558     -0.02557493      0.33585908      0.05513049     -0.94029746
     -0.00734203     -0.00009367     -0.03361451     -0.98272576      0.03156535     -0.18235601
     -0.00723745      0.00047319     -0.03408000     -0.98272582      0.03156497     -0.18235572
     -0.00052918      0.00447515     -0.02659818      0.11570270     -0.62932553     -0.76848049
     -0.00112440      0.00482316     -0.02698045      0.12509259     -0.63593678     -0.76153546
     -0.00048985      0.00716165     -0.03443231     -0.09730459      0.95234102     -0.28909929
     -0.00108556      0.00696336     -0.03484663     -0.11688307      0.94418568     -0.30798011
     -0.00205977      0.00367844     -0.03864182     -0.27381615      0.53223362     -0.80109431
     -0.00191642      0.00429674     -0.03825518     -0.26547931      0.56894958     -0.77834254
     -0.00094917      0.00475307     -0.03812827     -0.10330039      0.63187612     -0.76815467
     -0.00039147      0.00446161     -0.03844163     -0.10018344      0.63039317     -0.76978421
     -0.00524403     -0.00526137     -0.03240007      0.67691240      0.73466162     -0.04540817
     -0.00483957     -0.00560126     -0.03190375      0.67452149      0.73668535     -0.04811907
     -0.00368564      0.00600812     -0.03014614      0.47238319     -0.83353144     -0.28649512
     -0.00330049      0.00638538     -0.03061720      0.46858314     -0.83713147     -0.28220690
     -0.00238695      0.00662167     -0.03010808      0.29436315     -0.91056712     -0.29020312
     -0.00195862      0.00690750     -0.03057796      0.29036089     -0.91307633     -0.28632528
     -0.00441246      0.00549859     -0.03483074     -0.56561461      0.75310113     -0.33603393
     -0.00381872      0.00575059     -0.03524128     -0.54895047      0.76009704     -0.34771523
     -0.00317602      0.00637683     -0.03462851     -0.40038885      0.86462796     -0.30349178
     -0.00250629      0.00655338     -0.03495399     -0.36373380      0.87309794     -0.32465012
     -0.00110808      0.00656008     -0.03576890     -0.12473574      0.87843771     -0.46128971
     -0.00051236      0.00638521     -0.03625560     -0.11741652      0.87596993     -0.46785686
     -0.00051236      0.00584389     -0.03706693     -0.09386838      0.77026051     -0.63078323
     -0.00107007      0.00544573     -0.03744319     -0.12075681      0.74666405     -0.65414875
     -0.00312308      0.00507188     -0.02803295      0.38882537     -0.68260361     -0.61876259
     -0.00248571      0.00512326     -0.02771152      0.35756840     -0.68138515     -0.63863849
     -0.00247356      0.00394602     -0.02669296      0.31381607     -0.57545559     -0.75522867
     -0.00218831      0.00452441     -0.02702910      0.30242108     -0.59403994     -0.74542474
     -0.00240600      0.00697041     -0.03157307      0.29651311     -0.95004026     -0.09748577
     -0.00193261      0.00716513     -0.03205820      0.29096456     -0.95225686     -0.09244729
     -0.00099405      0.00730064     -0.03153804      0.10325080     -0.98970942     -0.09906838
     -0.00049329      0.00740134     -0.03202429      0.10282473     -0.98979582     -0.09864735
     -0.00218241      0.00625277     -0.03585411     -0.30056978      0.83178020     -0.46668994
     -0.00244780      0.00582997     -0.03642039     -0.31240809      0.81706421     -0.48456915
     -0.00317728      0.00534782     -0.03656117     -0.47284275      0.71006258     -0.52175748
     -0.00379512      0.00518974     -0.03621615     -0.47310737      0.70999651     -0.52160750
     -0.00428901      0.00423690     -0.02812507      0.54048870     -0.57786339     -0.61151113
     -0.00376148      0.00433953     -0.02776468      0.52888319     -0.57785198     -0.62158641
     -0.00380353      0.00353244     -0.02717727      0.47834521     -0.47435651     -0.73903435
     -0.00321902      0.00350543     -0.02678680      0.46924815     -0.47367720     -0.74527584
     -0.00487739      0.00511435     -0.03020232      0.63638405     -0.71902729     -0.27931184
     -0.00455081      0.00557813     -0.03066536      0.63198984     -0.72526651     -0.27308850
     -0.00482452      0.00558682     -0.03329235     -0.62471947      0.76929141     -0.13385183
     -0.00431097      0.00591054     -0.03377301     -0.61146495      0.77774888     -0.14566155
     -0.00358146      0.00647666     -0.03317445     -0.45717459      0.88211838     -0.11339562
     -0.00304025      0.00669095     -0.03361942     -0.44017288      0.88894110     -0.12661580
     -0.00111675      0.00317917     -0.02588041      0.12176007     -0.44306590     -0.88818191
     -0.00052918      0.00366382     -0.02605687      0.09913973     -0.46879475     -0.87772593
     -0.00224475      0.00605787     -0.02879199      0.27916096     -0.84103630     -0.46338656
     -0.00190935      0.00639326     -0.02920282      0.27561525     -0.84390595     -0.46028142
     -0.00098026      0.00635804     -0.02877032      0.10175807     -0.87374077     -0.47562838
     -0.00049118      0.00664032     -0.02919238      0.09445561     -0.87812776     -0.46900936
     -0.00497796      0.00545303     -0.03170544      0.64992114     -0.75580090     -0.07979667
     -0.00456116      0.00585375     -0.03220781      0.63805722     -0.76713201     -0.06626812
     -0.00374886      0.00635612     -0.03163879      0.47941761     -0.87312440     -0.08838854
     -0.00328270      0.00665531     -0.03212477      0.47001708     -0.87908537     -0.07932757
     -0.00224511      0.00116293     -0.02550375      0.29439420     -0.20524612     -0.93338421
     -0.00205189      0.00189008     -0.02561726      0.28578092     -0.23466364     -0.92911907
     -0.00042484      0.00186352     -0.02531238      0.10075340     -0.28899959     -0.95201260
     -0.00101241      0.00227989     -0.02550908      0.11435959     -0.29876188     -0.94745091
     -0.00319459      0.00260306     -0.02630501      0.39901659     -0.34913359     -0.84787469
     -0.00250752      0.00262886     -0.02601226      0.36013715     -0.34416645     -0.86709324
     -0.00455533      0.00460456     -0.02885026      0.59961643     -0.65169183     -0.46449746
     -0.00431573      0.00511614     -0.02926470      0.59688870     -0.65745776     -0.45986213
     -0.00351352      0.00567668     -0.02922502      0.44057554     -0.76741945     -0.46579027
     -0.00298826      0.00571633     -0.02879593      0.43791729     -0.76763419     -0.46793824
     -0.00099194      0.00696137     -0.03009475      0.10484768     -0.95005247     -0.29395114
     -0.00050076      0.00715978     -0.03056970      0.09984836     -0.95210178     -0.28901990
     -0.00150759      0.00067923     -0.02522482      0.21239864     -0.07503270     -0.97429816
     -0.00155670      0.00008722     -0.02520409      0.22184256     -0.02734772     -0.97469892
     -0.00047395     -0.00066014     -0.02510074      0.07317783      0.09890713     -0.99240233
     -0.00077591     -0.00008960     -0.02507231      0.08487461      0.06729433     -0.99411658
     -0.00030196      0.00057053     -0.02506876      0.03919163     -0.09909010     -0.99430638
     -0.00072680      0.00099001     -0.02514163      0.07685575     -0.12681772     -0.98894411
      0.00410315     -0.00090149     -0.03863223      0.54239211     -0.09689459     -0.83451917
      0.00385485     -0.00003675     -0.03883638      0.52430406     -0.00909446     -0.85148256
      0.00504864     -0.00402211     -0.02877823     -0.68625039      0.52417751     -0.50428003
      0.00511691      0.00170458     -0.02735175     -0.69202633     -0.21600624     -0.68879668
      0.00030896     -0.00665284     -0.02914537     -0.04337394      0.88124132     -0.47067232
      0.00742213     -0.00071166     -0.03233578     -0.99452372      0.09535719     -0.04277344
      0.00030669     -0.00221737     -0.02538258     -0.02413663      0.29038686     -0.95660488
      0.00703849     -0.00184784     -0.03097158     -0.94891668      0.24122709     -0.20338789
      0.00035745     -0.00481074     -0.02681520     -0.04726622      0.63287259     -0.77281187
      0.00678963      0.00170479     -0.02996130     -0.91523009     -0.21325339     -0.34187259
      0.00651329     -0.00343155     -0.03134530     -0.87827452      0.45065630     -0.15982103
      0.00466003     -0.00113262     -0.02680295     -0.63380497      0.16313867     -0.75609327
      0.00031150     -0.00069298     -0.02507718     -0.02590366      0.09913974     -0.99473630
      0.00040363      0.00223063     -0.02540178     -0.05424247     -0.29005007     -0.95547303
      0.00190078      0.00720494     -0.03289430      0.25255493      0.96515154     -0.06854567
      0.00029802      0.00365605     -0.02600571     -0.03777313     -0.47077947     -0.88144193
      0.00713286     -0.00008379     -0.03467575      0.95025275     -0.00349372     -0.31146028
      0.00447514     -0.00234993     -0.03798975      0.59311360     -0.30338063     -0.74577239
      0.00184683      0.00649831     -0.02933304     -0.24805047     -0.86410845     -0.43793556
      0.00041192     -0.00216804     -0.03961697      0.05372742     -0.29005816     -0.95549968
      0.00648307     -0.00052541     -0.03613522      0.87862814     -0.06592400     -0.47293405
      0.00089120      0.00176780     -0.03967760      0.12159616      0.20684449     -0.97078820
      0.00306284      0.00495247     -0.03716920      0.40732234      0.65771249     -0.63364248
      0.00664359      0.00101211     -0.03572699      0.89496815      0.12171643     -0.42920523
      0.00466927     -0.00559915     -0.03407137      0.63605039     -0.74264406     -0.20957030
      0.00271632      0.00159886     -0.03923082      0.36717430      0.19523430     -0.90943202
      0.00349622     -0.00149328     -0.03890409      0.48220187     -0.19732494     -0.85354802
      0.00194765      0.00445746     -0.03814071      0.26698593      0.58644072     -0.76472596
      0.00566039      0.00401357     -0.03523806      0.76621849      0.52749831     -0.36695334
      0.00481530     -0.00098671     -0.03810923      0.63575901     -0.13948501     -0.75918009
      0.00028962      0.00225414     -0.03960690      0.02343124      0.29039173     -0.95662094
      0.00607023     -0.00186674     -0.03642934      0.81895162     -0.24040471     -0.52107947
